14.423391407772925 14.304042677040238 14.232243759026632 14.144681557652781 14.061895883788061 13.998779215345918 13.987454296641026 13.867151117798594 13.923004331058516 13.845737653126639 13.675050118715358 13.688535585649761 13.683325730010745 13.593077010133264 13.550820615348117 13.509714917573246 13.424546280078616 13.33452206397016 13.381627325609239 13.327378730568721 13.295780584986812 13.251896417435429 13.203839084489807 13.279322275414602 13.10025872960068 13.198925103046182 13.175915776798602 13.194855948428195 13.06007356251559 13.076696532922748 13.15557668051404 13.238274233537187 13.049295618083868 13.060626583499909 13.016042915111086 13.024780689036255 13.111647737232998 13.150495861824258 13.203025687025573 13.17183322249915 13.24253149929084 13.331440212058178 13.300233782607725 13.293156710192767 13.377860823716015 13.40297790533944 13.517340196389473 13.448747865541097 13.558407859881523 13.678826431566815 13.636809711301812 13.778469043865504 13.741909744076228 13.784294272162942 13.81571044966682 13.938834072147753 13.914001672022025 14.111788469132932 14.074475763468895 14.204428653352329 14.288082804931122 14.386930654199519 14.426054232716934 14.479208283327724
14.26809641996929 14.263274128435132 14.101816059408451 14.130718072802642 14.039823216978276 13.91057136220158 13.872819499599636 13.762956799715917 13.74921502490721 13.692364589916648 13.711245539286399 13.67952836630556 13.510482195894147 13.533152797015081 13.505489093954267 13.413602597628808 13.359283858238802 13.3017255373978 13.262898964504876 13.189635167338848 13.199726524391002 13.160396237310067 13.067579112394107 13.08294676472059 13.053676607206397 13.07821098077758 13.096118609104174 13.033316701140146 13.057304007356542 13.055535999644793 12.985132881570763 12.96398729189704 12.969085058930352 13.0750822259508 12.982467654552746 13.018703344397725 13.105873281443934 13.042530781330314 13.036761210381574 13.082687033894834 13.172239853362484 13.141520638803376 13.253419679583978 13.267512822230458 13.228836348423078 13.219526576698556 13.354986549771983 13.453936083333248 13.450112724819805 13.466297562215598 13.566225279553981 13.693974430245781 13.67833528035959 13.703310337530965 13.812784142184716 13.938094058328469 13.855782241904006 14.037069714679747 14.028221045165761 14.154509657123501 14.159285619670262 14.272638896626804 14.237554830073101 14.428457624699078
14.263654418151857 14.219855763698895 14.035112176899304 14.094878677438741 13.986758750974548 13.93106968133733 13.864386209509085 13.708216593496598 13.66128061427068 13.671289755067848 13.576897966619809 13.661603526765196 13.471994742565377 13.376360940073194 13.283711658145357 13.337840141422358 13.245731662777926 13.226081908058026 13.214985252169328 13.109330706983245 13.113290985959946 13.155325409582483 13.089246647254168 12.959527524314913 12.991440103113685 12.975592759307855 12.949547657130696 12.86154780077536 13.007774804646385 12.827928671323903 12.84244554004302 12.885515864448095 12.96597077247142 12.955036797561512 12.919180057059105 12.914909151583533 12.930529720809561 12.88256998638881 12.952858827921045 12.956997153631233 13.069793059187724 13.0646738249924 13.102170297178354 13.176407713334832 13.178913403357539 13.209372998264502 13.154117969156712 13.353911442943481 13.32535533116423 13.424017801370047 13.451133680820597 13.55587588196328 13.517907881395097 13.691953117655354 13.734369679818988 13.781923742066656 13.911753429311904 13.830081586055597 14.047583723585529 14.206407797782436 14.138574875016857 14.170299805455084 14.34012882592434 14.318684054417776
14.123609714940896 14.057421362806968 14.114538748144419 13.944550661036047 13.904906792134884 13.898588822941711 13.815218154577948 13.601124198091997 13.667299187652239 13.533230555527277 13.566579476831745 13.456798064095873 13.313467147390462 13.272400349453127 13.250743219097162 13.158135120156276 13.208095754023937 13.135151024260493 13.04914525912971 13.020883783659999 12.96425162325581 13.022248858679065 12.901104632830195 12.823591234570035 12.866635211825937 12.8039874743543 12.833887944521612 12.814931267806612 12.782860495749517 12.826051039291162 12.79359764698523 12.890943394786317 12.748251862733966 12.755482599398821 12.778335296073543 12.820996441225454 12.780277569707428 12.830183926601494 12.908861396156034 12.873788640093196 13.005730983393958 12.984590904168925 12.939421233049174 13.143230161933259 13.079992533352803 13.045661952031763 13.176366711612992 13.235964859814295 13.26330957327983 13.359768194445884 13.419746944479206 13.478041911154317 13.449805360863076 13.545450984287461 13.647174863214218 13.664343283777985 13.675124438053185 13.859698413760459 13.941086704048681 13.953007022865448 14.099415482219872 14.205864600740671 14.103302753491864 14.267343332391034
14.14555548347372 14.010911223621667 13.925563653778928 13.838486329141839 13.831862192468318 13.717075552764001 13.686611315388625 13.653776170002043 13.49637167254495 13.536415600550214 13.436799841394969 13.411287313811172 13.276526524821984 13.211898242390317 13.152794680785616 13.093131849133165 13.069938864570844 13.116904549767423 13.066664009099707 12.932137640093298 12.966718755574638 12.83788992727156 12.814848636773922 12.843241966718956 12.729549726111381 12.815169507560253 12.689593990046317 12.728910690290864 12.656362148412702 12.632935493394816 12.698507833389252 12.662045088512478 12.736661623632465 12.7285729062458 12.86317678824213 12.710654268631359 12.70597088857213 12.726966845502123 12.851165632889531 12.869347445036345 12.794203098473778 12.927407557366834 12.947145428127444 12.87093100651384 13.001578063638139 12.967687237694502 13.056884294163256 13.161680386721748 13.208793503769618 13.323531165158117 13.30019676448977 13.363953666219919 13.375061874379327 13.42345609057774 13.538197175907422 13.607513240816038 13.68542372010899 13.774024012632754 13.734530659933307 13.889067033184539 13.927698426739703 13.962153045382617 14.071103892066027 14.156568447149166
14.06534725894233 13.969903001547195 13.907279111014628 13.759226779040942 13.782838125405128 13.734589230186502 13.544567481293916 13.60547610310699 13.500780164651971 13.353614190530738 13.31663620271643 13.19058690037493 13.103177543334874 13.024973247044311 13.079395079423206 13.044892126053533 12.989876662452124 12.940324546678424 12.87505798130077 12.878775224612294 12.887574759958706 12.711845454723903 12.742981532283851 12.792912324648343 12.73132508069892 12.618298626399222 12.586903546101595 12.65273037411341 12.622757321990312 12.576762750319164 12.618238077998098 12.553620600222207 12.632205248716726 12.662116718069084 12.557061735511738 12.578540174816782 12.617928045950904 12.681997396161158 12.682010294476427 12.658588471319616 12.816817410965434 12.76536038440488 12.860066627690722 12.862950574653011 12.924476042542741 13.004016490535076 12.95494341414114 13.037468492725148 13.118179258941348 13.189463661150233 13.142336522275691 13.27676620466877 13.352872672000773 13.29001359857926 13.438415516385206 13.511941166169196 13.648885062394472 13.612449661328695 13.786938004278255 13.85620371950902 13.904945417658851 13.87628690500285 14.140908018917878 14.139459389783806
13.918725082308045 13.785473427910182 13.84384609524578 13.794523563192902 13.737214665915495 13.707902999754785 13.476455849301052 13.43396150733712 13.408778352990824 13.339246432991681 13.284946195573022 13.300347672725655 13.121211751025596 13.035154535167704 13.005906069231418 12.87015821171433 12.902593161605504 12.794414848702777 12.911875315222611 12.76612221382547 12.78687634288942 12.689300940506296 12.547807897900265 12.679753509976102 12.683411549872181 12.588670027845003 12.590493604870494 12.58869475777669 12.637324364247581 12.484891475402328 12.514729611094086 12.499434473572972 12.472635939406695 12.551793736350369 12.558497095985434 12.595129118206028 12.554261427729081 12.50971741291373 12.586006849798226 12.679246483291468 12.734096115793296 12.770772742627784 12.711439227334003 12.812140475808995 12.8537695816303 12.823203962364142 12.969634621327648 13.014753572453554 13.061791959827584 13.1223169922142 13.156400259910384 13.220966995161517 13.32694143987211 13.414579599029242 13.361489170558361 13.45745621455198 13.573864108868923 13.647668382520138 13.567701863884853 13.731846333722839 13.822986368707937 13.88132503362429 13.951442391693147 14.064053813849323
13.850442522081863 13.810628622467442 13.788475801733508 13.651473634191222 13.50807525081326 13.507464064215904 13.493740121681377 13.32193637322155 13.352913866981515 13.248965930465118 13.216801340655335 13.109547845607455 13.055749068678965 12.972281723945287 13.028018393139163 12.910626082787472 12.796483930118447 12.851369932490314 12.766811603888012 14.63429718905033 14.669352295949821 14.59009390110534 14.429014172242702 14.49642423278297 14.52372260262831 14.491713526056275 14.37429637813867 12.353839438375255 12.353176561543282 12.460890014968372 12.402067482009043 12.416775492067314 12.519914609117718 12.38360022358658 12.469727337846757 12.431120204582623 12.453380013675243 12.485668003820695 12.475371504972452 12.534107634999856 12.638799229711758 12.594485407571293 12.60670899970344 14.587409250388351 14.672269624226546 14.766848175552315 14.852441005738315 14.782407721354511 14.948407694299636 14.990550469335567 15.134710258730383 13.13440317140991 13.195457862183526 13.247899950121653 13.32927897884639 13.421622772913166 13.481418652732566 13.546261589377627 13.616161128899602 13.644911473222944 13.756291711314026 13.836870984090131 13.891516733747949 14.057765403086385
13.857913058936258 13.770842977226781 13.689994788214264 13.56813515441063 13.518971475487323 13.46401611417266 13.368458108091229 13.289428162405422 13.195309073526712 13.225535367838027 13.121475980976236 13.064320024795796 13.027323099364182 12.937043671645295 12.76430021171934 12.80477892217784 12.826395372721423 12.701033360965884 12.615067176486649 14.543038345999944 14.609197886974004 14.521914944217123 14.464786210870457 14.437352325413979 14.390299278459102 14.414124648575738 14.365170113715898 12.383422679429529 12.32207818712143 12.376390844481936 12.242322489344497 12.29533851328221 12.306696034027565 12.252132305777295 12.218436504810752 12.349316581105501 12.246136782592078 12.392240390228793 12.423811335956664 12.457303733986537 12.394936800867779 12.440339065978023 12.543961881843716 14.631546098774656 14.64531804171316 14.57482048265967 14.677538676403419 14.883776099467754 14.80176757565558 14.921878947331017 14.90807986298335 12.981242422116326 13.093010257495802 13.183387115072053 13.328655758869987 13.305016911736923 13.413544036447115 13.525576211664115 13.588325198498461 13.601643037216192 13.714393238304217 13.825248897116875 13.815536047507166 13.933576013580845
13.750940527164493 13.867998920641115 13.626882376172395 13.559558793986291 13.49145512335811 13.416974168431048 13.305580909559504 13.304848747118953 13.148442873023207 13.186812561226368 13.011301917181662 12.880771092963556 12.914324411739134 12.880487805267101 12.873346676745975 12.713925483943932 12.654578679700073 12.535758502332303 12.492043837042875 14.535245343434353 14.453524165577008 14.412506192385965 14.302319415471356 14.425533880962002 14.330976676243633 14.176458172349012 14.219345836358789 12.299253153080171 12.23925153731166 12.243782650673975 12.11666946352341 12.156792470402394 12.155286108731381 12.129080873792875 12.158276653856465 12.242448559711377 12.232943943146728 12.290561725585544 12.266460952630156 12.306262899533776 12.37376627991236 12.414014870006408 12.429254157820377 14.440374266277633 14.636580575462492 14.606800205619225 14.629442787404107 14.843051051463977 14.750692311684995 14.796633765887206 14.852292299786619 12.969797608903658 12.94914093741858 13.0880381481321 13.150031353457237 13.318025260882775 13.285468753971138 13.33441176363247 13.494121743148261 13.606205453628517 13.679365247145038 13.71682963854627 13.77127796205114 13.916189961754538
13.740165936309879 13.66492650237019 13.564161748516584 13.539672012098562 13.473476374298288 13.30503168498739 13.293148426536932 13.177353166930011 13.147022565018226 12.899481273171643 12.971457010011955 12.870038307673456 12.807794674714508 12.798324339715228 12.70485069337194 12.672280736431066 12.587926401705284 12.47946032278468 12.482645472519064 14.409567772911501 14.329859172692784 14.289713500653463 14.248292857529824 14.243796801915991 14.22793517193092 14.20978706320598 14.152295644690955 12.135189340543121 12.102879084365863 12.110679656758656 12.036694553953758 12.083658505696198 12.08422028569583 12.189107987748633 12.077392279681437 12.071669169029914 12.169636174481615 12.235528760324259 12.201221245278667 12.341584820080868 12.29819249442491 12.362687638583054 12.2958547890678 14.362416395742779 14.427867878776365 14.47790714198778 14.584583473798228 14.654406381931645 14.615026925754096 14.76864892546173 14.855037340996704 12.922651395478946 13.036981405763871 13.0664768934915 13.187988812170486 13.230828785094811 13.22428025397321 13.277479162707957 13.39052132885915 13.518625774061626 13.56048495399939 13.722070993448854 13.82061486850911 13.858101063516397
13.751537474622475 13.667901087174544 13.582187321773525 13.444063113573133 13.42602733407834 13.207311218959411 13.264712427592446 13.067470504849057 13.150107225056873 13.029381195859024 12.889935063342598 12.80283632616859 12.768453059787129 12.756695332276665 12.591713995360719 12.584524250619872 12.491172341833048 12.387300661795626 12.448776245694624 14.368526311196339 14.29499334206949 14.29202086705274 14.161218453147908 14.14158040464616 14.05799821651852 14.045494099941783 14.13634123856626 11.98844134238702 12.008936874677012 11.972876138307806 12.036706483082533 12.049983634204438 11.986097937382654 12.017278965317225 12.063390787269238 12.06539856420166 12.021566782336588 12.108860977321221 12.13866424760072 12.144514338181352 12.239791101033862 12.256635524607525 12.261314559363202 14.372699264589405 14.489507853253093 14.494082437293047 14.46702767552726 14.617330464225514 14.634290168193779 14.672088544559436 14.757910454793668 12.830999339560904 12.817945675441125 13.023083690046107 12.943911600061165 13.185220530554487 13.21538707055281 13.304054025148421 13.357292564833847 13.468854713725413 13.503273785387448 13.601152648444678 13.588807068467895 13.850769825426003
13.703782939261668 13.613745755736232 13.478559297802597 13.371079922480389 13.317624275862666 13.192764488295849 13.180516213585475 13.044399559949799 12.968117133854816 12.955880953173377 12.828749914901888 12.781040782209697 12.693725427511012 12.525049504570164 12.492789272892876 12.490515493775861 12.322703874736241 12.421406236397488 12.313018657106312 14.22924507897944 14.16764930798946 14.156690516414274 14.065795154650724 14.038240110097778 14.065949274229707 13.992274232649475 13.949633339017199 11.977346996565675 11.920226815406686 12.00563796196437 11.855773749569803 11.902010920298588 11.902318089588551 11.845103980883826 11.998598197023075 11.936469349899998 11.942734849993933 12.051644441864205 11.962703808142766 12.054243872343461 12.119812239686171 12.19102440804934 12.187303169225757 14.273263999950531 14.325507410069001 14.402568666529977 14.397072923139088 14.582116077125619 14.645100935150055 14.569685907397217 14.707017231431896 12.73255005324532 12.906783685892925 12.905450176217895 13.022004385059514 13.066737162772178 13.192096253228407 13.146583718571547 13.296138538246819 13.41909715139425 13.386955536335012 13.566700212401454 13.661568151174642 13.595675940818609
13.604009846161226 13.465133984608569 13.477157233535191 13.370702494478108 13.215712237133978 13.077447121942987 13.009044250668302 12.964203039386922 12.968025268892093 12.814496759131568 12.674702751297623 12.59482256623353 12.557503048698935 12.502628657990128 12.494794543788943 12.374511380636294 12.386699069234597 12.338505667973815 12.187938904945073 14.165873600131631 13.936655162748414 14.150034845839174 14.042485846405574 14.017083124145636 13.874826005883442 13.911076210747805 13.932347239927935 11.774528322529008 11.782507723075794 11.763295883532544 11.738683584512076 11.817574817914547 11.717588668022595 11.85404596970441 11.795734743465163 11.89205866138206 11.866017687780419 12.00654132622864 11.945553551031225 12.026364905987199 12.027040672113166 12.124013827695114 12.053719403251137 14.128229113739536 14.192224387363636 14.340742542977209 14.310531010323942 14.42795618382378 14.452153517029496 14.56524883490642 14.624894187390534 12.802597082365688 12.743784851343383 12.852479109761966 12.915839423990914 12.971047348028378 13.096140237102842 13.12759954984095 13.305231512841942 13.347542138542451 13.359630528204617 13.454236018922183 13.575863390540489 13.57423999804217
13.484254533620753 13.48132623387362 13.374852084742887 13.301465123447292 13.136124759853649 13.11643344687807 13.071241697126542 12.921359072600593 12.824718415206293 12.871317665112636 12.707377590170445 12.653988244765737 12.643662853828546 12.433926525726946 12.401530651143228 12.313454915542428 12.273426957014662 12.256562277627657 12.149199872983338 14.065355935379745 13.987564993890759 13.934839168643034 14.028960928446235 13.847292661206339 13.829507816628599 13.834077492636263 13.691441254204504 11.720448388342394 11.72391064676725 11.717679031201808 11.654384635059662 11.75104066193172 11.674265938833813 11.770146959127183 11.876817126716112 11.73198299018584 11.779163439040486 11.854879768380401 11.855757417053521 11.869141590505365 11.970997861062463 12.009588851294016 12.065831230215199 14.113142491393175 14.134207221423612 14.282365628354382 14.16235463702668 14.367384175377254 14.390246219203522 14.516356905119263 14.547315242272362 12.629738839717112 12.803373630750942 12.685714186246102 12.8631257300566 12.876199037554168 13.040115543510613 13.126572742150161 13.189937873684032 13.198618498141348 13.35444789231865 13.396353770715546 13.495505941492587 13.552688436614316
13.480565356044696 13.408048683279242 13.368740084707166 13.174990670769999 13.132253711086745 13.129362285553071 13.04997966387149 12.943581225779429 12.787249378401906 12.71658261560072 12.674386024825912 12.552129275401104 12.51053058208729 12.364565502515994 12.365690358416028 12.261481467543847 12.181732511108484 12.12135121560128 12.065586655259082 12.018240851357199 11.910255493931038 11.948272676967289 11.890116063254636 11.829432440898248 11.742761738858341 11.709380617112718 11.61715864671116 11.60491304693619 11.583317827949623 11.678184330128078 11.558671763531756 11.633572230554696 11.53834821791244 11.59147924130275 11.714682565798874 11.63116808347452 11.63344854619072 11.80804500819619 11.757906777913703 11.80723465473742 11.81942863450131 11.956106844890456 11.930966068937602 12.03388198286825 12.03637430773438 12.147632091599075 12.255037367139927 12.264338549812678 12.319762560357223 12.443215525746291 12.451607745384365 12.603676735578 12.625241499894482 12.6922091167304 12.826654015905284 12.92246141711282 13.005801822539791 12.985689053719788 13.090770276471835 13.310212223081248 13.21124884586573 13.402137095833051 13.500862811735926 13.535019954552748
13.448769924489795 13.349622870694805 13.23640316675853 13.094870180876844 13.07102886626561 13.006627119234043 12.958653240430351 12.774985291782999 12.680791231107074 12.748762011462231 12.550811608025535 12.451864016484329 12.414529689102249 12.349166145863263 12.259104525884396 12.18273776239105 12.08268495960409 12.103542252719405 12.019789639042855 11.907703678687911 11.889958803852164 11.787878622709675 11.73723334231662 11.762058849248051 11.757665092093536 11.625706682467966 11.516710462288355 11.494792988539414 11.462987511756042 11.560064799461596 11.480620571727817 11.484562153475432 11.51750678049148 11.574251188605677 11.492145995880987 11.56195384940741 11.61733708123108 11.688352467213301 11.58084640795225 11.693103641280496 11.733915246274579 11.817469080833021 11.852855895230993 12.025810904361796 12.054480845817656 12.067912911276235 12.171193480661904 12.198516154962004 12.333037887160492 12.259187261298486 12.41835276229898 12.483420951178536 12.499875599780815 12.65754741146688 12.712400536670378 12.811664416719555 12.82692547489284 13.059155131381935 13.094701850082352 13.149092893172105 13.302192240952808 13.459494610336874 13.384645770242354 13.578970395678715
13.386179909266769 13.349545966757173 13.213114262880762 13.092701027621587 13.009340826390881 12.963627130641745 12.89603406187167 12.780668289763456 12.740498597097108 12.578057907904284 12.577013609041378 12.449158768095584 12.394280018137781 12.22685612011349 12.246434861030906 12.1521495344375 11.959170460147712 12.060400034958112 11.925204352935431 11.863439240088109 11.915790958741773 11.747331739996977 11.704294348181914 11.537340835410767 11.576902682067205 11.423841112988821 11.453323471942188 11.398280602531438 11.368122440949616 11.313139489172366 11.400260037256437 11.449584933546051 11.35808367443078 11.421792899915154 11.344110074865075 11.452061457649336 11.501714837871797 11.503419029388674 11.501802186990792 11.629523737802815 11.648010536582614 11.863741491463344 11.770090451961213 11.86665196121492 11.880012962630563 11.982395379962306 12.06299956662016 12.204643487149266 12.13269098528195 12.346637722349094 12.379504482159888 12.332806397870396 12.55652534639226 12.576332834848081 12.637628247115405 12.7859748807114 12.917750099224182 12.88710801965761 12.990358282486802 13.120485440604936 13.248259735233662 13.24374118880089 13.354696620323319 13.517209152067283
13.415100581775134 13.2603998063726 13.165147654517458 12.977797951007252 12.961011610159304 12.914059339518877 12.675682388937668 12.713719081513748 12.684852773056638 12.56772582815188 12.446747528576273 12.435959023623095 12.274119793150273 12.17351194926371 12.167608470210522 12.0397351821549 11.882751915328525 11.88561109950509 11.817927471922753 11.74890556327016 11.681695410844847 11.774751192799894 11.586477062778203 11.587315102512513 11.383939394800572 11.451321788114464 11.398408056954864 11.427705103682097 11.372349020507393 11.24661513903285 11.315501186570211 11.264373559928147 11.320380845190085 11.335853599612111 11.291392572243954 11.331124692898618 11.379057059882332 11.365734084423298 11.488387138580014 11.50717922648283 11.565277388004857 11.559419672082454 11.658636383354391 11.80115988824413 11.839425915217166 11.86983330697665 11.971911992414547 11.99448299774958 12.133032971071321 12.281173170026424 12.40802225956496 12.487926281473847 12.46064986330482 12.503728672145556 12.537084062647555 12.728351936358468 12.790152831093504 12.922166053089892 13.020701536000164 13.05775202654114 13.1722807770635 13.210557232901435 13.340865853804742 13.45476779683644
13.314037729812458 13.256877546791113 13.017092370891799 12.989494194738409 12.988379311469613 12.82054319153072 12.817358734470956 14.741795684147284 14.635783996243996 14.5548017308128 14.433993212645133 14.281951024025412 14.21421992780504 14.178999728327728 14.085672600276727 12.025323743582616 11.910291906972791 11.869151559945482 11.72798657633491 11.622370233072777 11.566840969996667 11.663619467614678 11.47750645726522 11.469522552892352 11.431184678640768 11.3843492179553 11.285620533127995 11.32743945897469 11.149579249173971 11.25414393563572 11.23605009615874 13.219272097415834 13.246207720066627 13.222283950172868 13.219578867180225 13.256343356685639 13.293798489127447 13.375463300462396 13.370848711020063 11.519967985916283 11.5179448154426 11.52056384941963 11.551843732811196 11.73056792409443 11.790997653335607 11.861559727611162 11.884432062536924 11.984977982894389 12.099280216394549 12.10679920842636 12.288858200606334 12.468040285908874 12.429393615208625 12.50545028144003 12.663366211827514 12.741220419739298 12.667230078982188 12.74162682020283 13.02904853381256 13.08297441364443 13.106332469795253 13.296415137806317 13.297779480973626 13.426712840984704
13.394005219209214 13.225164205580683 13.04222917818313 12.991845048561025 12.832976254197765 12.838136898773877 12.760050769412894 14.664252653064773 14.62449096865074 14.466452108843159 14.373069131486355 14.272775571017302 14.216321008583018 14.13973878458142 13.973064305451206 11.85302696696204 11.928240490544818 11.756196239496983 11.664606267781332 11.650786631477196 11.589110739658558 11.486216056974904 11.516564657764636 11.334653724714833 11.275079970325313 11.244460186871244 11.29375666380048 11.10409579339053 11.117969421176783 11.15232390479196 11.116677563225176 13.106330486342575 13.183666666122845 13.161439291809835 13.107386150933857 13.20819101812435 13.217703162967954 13.232744276200762 13.323745372911343 11.318930582497579 11.486419042366485 11.519249593799511 11.569048160344181 11.5961981480671 11.726945023999397 11.967651229263064 11.798005563782867 11.892467750788633 12.063554367029157 12.105803939760046 12.161163019512195 12.297608957582591 12.41474429244327 12.4929207178516 12.623827212193675 12.617135108541538 12.78507431379389 12.846941668292299 12.966343562815668 13.00554011983153 13.161520770109913 13.248296070834101 13.258040519344712 13.381502164524798
13.255619429672354 13.142256864489006 13.081612492926533 12.893238004957517 12.877624898701757 12.833642294067264 12.61325786873263 14.580059999443604 14.491862479298357 14.38049292826988 14.327588681425212 14.273395710949988 14.143982290084226 14.021127667162082 14.028964436958383 11.93982460033533 11.746518310890417 11.692221002662105 11.600026394544871 11.509554338563893 11.446925593303284 11.454418283211101 11.352165492012004 11.291437062959195 11.29180303113846 11.177827112992809 11.12464603699087 11.06782093154905 11.027878162970241 11.001448180630204 11.051670550686648 13.019286024494392 12.936969394330097 12.979589225155701 13.074013017668845 13.027211571559988 13.117942860970965 13.158166176540773 13.227735351713509 11.29749122981854 11.321792247156495 11.50324379074184 11.551513227734766 11.583386449187095 11.657711522600163 11.788538941760539 11.885209967799433 11.86722129889906 11.998913853170606 12.050361456544335 12.204145245434749 12.307231746619046 12.470387849828473 12.472435942698601 12.449354677194915 12.637753905115748 12.701741126357508 12.704049532262635 12.930400255683972 12.998706643270072 13.056216799084963 13.230874076431064 13.260142632195443 13.347110197302111
13.2879262376676 13.157765094642357 13.073576789901235 12.982798506877245 12.829949570155351 12.685303131666908 12.61105184721585 14.425690024387606 14.511275602873887 14.310868309397916 14.33290162329474 14.20299520141693 14.137055335549613 13.917164171715495 13.942359068891683 11.812236545436594 11.80787698065797 11.686885822826113 11.612634634159965 11.55669427150621 11.458480981159022 11.278711819921801 11.287871484945569 11.128367814036308 11.160097991164111 11.081578554487962 11.016423348410498 10.92193608689145 10.98940551744604 10.894190153072797 10.86744241930643 12.940312160562407 12.987791703933688 12.953433339131442 12.90303548113497 12.94016188713546 12.953133466963791 13.11660335588027 13.006529018885766 11.231341134458221 11.230731937730644 11.323702077401595 11.466378532713764 11.517238038876032 11.541573015118038 11.707763655989236 11.78257992763677 11.869298866522445 11.922110454435172 12.030440812156007 12.135239002932858 12.278715165687418 12.31325554367533 12.378924692683956 12.434411383248131 12.661378906101815 12.705679581124391 12.76811258208378 12.873177603655284 12.920131485765268 13.063857975682087 13.140847942461306 13.132422971056881 13.314740849884991
13.245285010112918 13.16987819827883 12.939776035777435 13.003058615328868 12.799499297030286 12.716887375844536 12.617118347516488 14.482549228330559 14.380314496328237 14.359978459949831 14.25572131073494 14.17637439963596 13.988452192141661 14.034051510325966 13.927138991167014 11.768456243070831 11.727284882740395 11.625100986087743 11.535763489022276 11.502708681721725 11.43454140857724 11.286174321625428 11.241116816010566 11.14168114748635 11.143694033308497 10.970789359051704 10.929970370782533 10.796225121936134 10.855729325805616 10.87520231439384 10.813958292232652 12.713086691980184 12.818259572627165 12.753315241129574 12.832900998020605 12.815969349350638 12.918937871558667 13.02839770975326 13.006467575597968 11.09047836872451 11.263854594646032 11.16743584077675 11.344853228358122 11.397709075348004 11.472906393524486 11.65692288821014 11.679425776550525 11.839994133513661 11.909689560975695 12.000878281396389 12.041568487297932 12.127862806875903 12.23309215532432 12.310212561871587 12.40893045304426 12.52381434596454 12.636400500137531 12.770092498086793 12.804229304406235 12.903794725391766 13.061938533464025 13.127021402730838 13.2524126854092 13.27451720890646
13.237134254468213 13.077969551106559 13.006431737714832 12.961422420660833 12.797765631963777 12.669936924005171 12.508912039049608 14.48045106791232 14.413663526476016 14.306212246167357 14.183610454098135 14.109482737072687 13.994014340904167 13.953659666136693 13.807307203559393 11.744890052489035 11.70228603879416 11.606691436292884 11.439113711654121 11.459429883877846 11.270775708415593 11.235964220836498 11.231830747395039 11.125968583508872 11.008290563779914 10.93087258561876 10.904371263345826 10.808672863966665 10.77594597590773 10.702255137444004 10.7011040779736 12.689032560994713 12.733280924993522 12.64102061883251 12.827294987854449 12.764384481338555 12.927399712439703 12.921065489398465 12.954354719576326 11.103739195782278 11.21463678209624 11.21597991359966 11.429466240760167 11.336316758846806 11.502472563341092 11.60288107266108 11.675915284867884 11.70825099422212 11.84879828959362 11.860905716096855 11.984521187821734 12.103012253098298 12.204215590094899 12.28605665011778 12.310073921068174 12.465368359403758 12.535940573974624 12.73237430360943 12.825137968365665 12.840157857676328 12.962452484979114 13.077417762404389 13.196763273038595 13.264136607336011
13.15173044311808 13.07771725148931 12.91987188024405 12.926678205900883 12.831348467673575 12.668470801346116 12.631619235619485 14.400955224491904 14.350642316058718 14.2211811255196 14.124592801650003 14.03767531504964 13.936478787858233 13.874132250845125 13.74947990568367 11.71260681723255 11.66033296489452 11.532252731672315 11.43120574745938 11.34715141418589 11.24075978840769 11.163645771294863 11.093562697956955 10.923948582913088 10.904108514836775 10.826243784777033 10.827665616773587 10.726492372254912 10.638883132214353 10.654832509083779 10.586242516155393 12.682711470444033 12.583080505007086 12.6444514684707 12.673449122364037 12.6811516586171 12.744642284742719 12.828301564432898 12.93380248097281 11.0717551158396 11.074921246327108 11.18626539903943 11.21961137929388 11.315655311379398 11.426319057458679 11.484513722608677 11.63434563245428 11.672711630691655 11.856914472422183 11.955695550165037 11.933526276991254 12.036445873591068 12.14247283446288 12.248743742693694 12.364973397708193 12.4395036205612 12.527447129239292 12.667593146359753 12.748993324746136 12.926042994245385 12.930582012022834 13.06178173853055 13.157029964274544 13.278208318471782
13.068302137515921 13.01879399538334 12.969116612940663 12.876597303877608 12.728387003792342 12.734897615251674 12.583583779526379 14.395808485502943 14.306716928704322 14.24674539931902 14.103977437658038 14.109787705154284 14.043295901547411 13.869252649109749 13.749804377384095 11.682588683020382 11.591773657318251 11.465667308588355 11.410938854622037 11.303955440865863 11.167645950520155 11.122083061139492 11.088090950852548 10.905226355128017 10.893299211898652 10.717406488793332 10.705208237337033 10.677607421168677 10.577716020243798 10.508631557033526 10.602952130897698 12.45276416793317 12.4789478229812 12.495155148917027 12.65804348200867 12.63975720947251 12.716845558450718 12.814467449443308 12.91723059872972 10.866312931907228 11.083511084474015 11.058887307306398 11.14749412682097 11.299179292759401 11.313484622522779 11.531067858926567 11.532122812562333 11.705959847794478 11.749981894259948 11.973026625928224 11.94443358654406 12.18279538479206 12.071536850980028 12.252969826382605 12.384820628467773 12.484272175876765 12.538678541685893 12.620967918392786 12.775307050346832 12.781591695991791 12.888229239243785 13.003247810869873 13.156869510645592 13.203966255134041
13.042515290018095 13.031570036957692 12.917705735846129 12.881168104394835 12.693851841906893 12.617819780545249 12.516576383853112 12.310715930760782 12.303411296391669 12.172198356745175 12.103654386624672 12.05020785919055 11.938037291191488 11.908804020840986 11.753631000540405 11.679266611490513 11.603609030192633 11.471877274135753 11.35792144084006 11.254907829484344 11.225293201509484 10.96480165633682 11.009172759933634 10.809138972758419 10.836893381927265 10.762775006375643 10.631460480510276 10.614921656188294 10.529093570612709 10.485092433430049 10.415294695709031 10.504268241500167 10.355897198433556 10.415931809320565 10.398269135002396 10.626286904697283 10.687078541671811 10.777709878880497 10.717654636767994 10.92791532397292 10.96404369806712 11.093329571653431 11.291042390937774 11.253111888005575 11.40663629246322 11.441115154494893 11.423163353955132 11.624383991342325 11.698564920022434 11.98449821528375 11.95945228383168 12.010863536666529 12.145459924634597 12.216457067176892 12.354098110325705 12.435789930861297 12.457003597341936 12.584634944524543 12.676701299444284 12.822805174211467 12.947423884752006 13.000377387123613 13.18815066282955 13.154830618808942
13.17988616906827 13.00099955744799 13.049302693768658 12.873868054636702 12.676253092708821 12.647069417805698 12.549792666011141 12.371342452286978 12.320639174510921 12.197756705130015 12.118186220416133 11.98564003579509 11.953109025166228 11.768982061865731 11.697302616185825 11.53661900034918 11.542380518482485 11.389188718358605 11.259063010032728 11.234294472136074 11.118155774369813 10.960446929050903 11.003388012870642 10.794454748216186 10.795900897519445 10.674419716197177 10.583497913919656 10.526176209717962 10.472677402124127 10.382497071794818 10.282071440468956 10.291290270879939 10.29204654625331 10.332231508527638 10.421852159122041 10.652900866183646 10.612197671874746 10.670401464621744 10.682606848638663 10.832552352480961 10.934124750277233 11.10676294222383 11.157967246038194 11.195730860516626 11.431315669549274 11.47491259777777 11.518536754190722 11.613127965869483 11.676573997422198 11.813954004293146 11.835700874923068 11.991038436104288 12.074183255644753 12.189108314630355 12.283743988232297 12.369536460256649 12.528352935207558 12.597109604148192 12.685977782520892 12.78569967660441 12.920224823394127 13.076673110301046 13.140609880694567 13.192999570837385
13.10029070815769 12.98152342470155 12.8093348788205 12.82500342688634 12.690846598300578 12.572630862490438 12.534724508497908 12.387285420284265 12.337419415600554 12.200406476343796 12.138486795184873 12.049624132474372 11.85589530490396 11.78157078455315 11.727763880041609 11.576624989834635 11.440883053059448 11.387637082086762 11.383524172534504 11.296783434560979 11.103102504517036 11.055807693793886 10.98875613215974 10.795840739622992 10.711574969997965 10.639396137512502 10.587774771761403 10.444804510085998 10.397905172987953 10.279258807973205 10.160625234713981 10.15035703223239 10.20009735241187 10.348872732960658 10.403080878592592 10.523782361675046 10.559009228304495 10.596137242901127 10.795063214924587 10.813600209052966 10.906203013580472 11.033489982975603 11.04249997515866 11.209547127557833 11.371271074659875 11.360192488501136 11.487262389767027 11.556735038188357 11.76942460755214 11.792985381164735 11.909260142982014 12.060740422039773 11.981494922127684 12.215273376294794 12.403135964024367 12.362725349309589 12.575656675762394 12.625534613871675 12.679877685373908 12.748752164959223 12.903038550339664 12.956935911585392 13.119852940672697 13.249546837131776
13.038771545430222 12.976422802994596 12.861670063490578 12.752719545077452 12.785450887236264 12.593660800971625 12.497420953071737 12.445434731441695 12.24783811688683 12.245718125492274 12.15119189272485 11.993829429819169 11.969213452476454 11.90034482561975 11.628006041268215 11.543262050241097 11.498951246829366 11.47071836516295 11.186692593551347 11.160177845453626 11.10192098037161 11.103483055042556 10.891211054299301 10.851827019721737 10.660174842046986 10.589024547124328 10.497619303262818 10.443634705547257 10.297663171717403 10.182742419060792 10.153630740188676 10.105983967372095 10.148902559694518 10.272697706925625 10.317390965627713 10.488218164599974 10.533835750358211 10.571848272993947 10.698617803467906 10.771399005980621 10.892093432415969 11.072888249386693 11.20600066165016 11.15578639953008 11.265701001877867 11.494341002891113 11.486975553454302 11.624060043220016 11.633598603241587 11.737005441837729 11.851649926687163 12.121254353678781 12.16719577977524 12.223290615224117 12.391907110451578 12.432296529068307 12.5052566551687 12.615072404997745 12.646930647061486 12.827872875778123 12.807784248709023 13.02364014330156 13.138633327305685 13.221708291018174
13.134143387711672 12.981627322882222 12.797583118774929 12.808890425064645 12.737514590479298 12.541763168934313 12.51139007170263 12.431220170497262 12.303176491491472 12.231580705387676 12.008419216833108 11.978817819706498 11.910117996457762 11.77361914787091 11.684709816780277 11.645478666004182 11.482175437002024 11.3752112638333 11.315095782036432 13.12719716680351 13.102792255678699 13.080434105953909 12.867248190201227 12.772602988227872 12.646712017950021 12.657265669621847 12.474362069852065 10.392014987431114 10.361995664366841 9.706829377638394 9.627811972030107 9.45476000317114 9.617005747664328 9.608637470467421 10.240780096874632 10.404734637117134 10.453735008620098 10.609286175548217 10.721102028497814 10.802443374106177 10.915411048192802 11.032026096130235 11.083255583463691 13.207361979501956 13.291010419611863 13.350079844402506 13.500510486105096 13.659636851930628 13.712601119529964 13.756910815604849 13.827567463277617 12.011069997537382 12.146983537665255 12.170620937477176 12.314695887425101 12.367215498454906 12.6003473759172 12.520535628010578 12.760756161017209 12.768243815337625 12.90186681905897 12.944760370066202 13.05931890673175 13.201845516034298
13.015966716556756 12.930802567099944 12.841114138086564 12.876260619769436 12.696047648734195 12.530628810079026 12.4376696193815 12.468485485978572 12.370830095075002 12.205777307423388 12.138843429404584 12.096624972627515 11.846494043195467 11.940433657625526 11.71869980790633 11.589317694345896 11.439783218362605 11.331179037317714 11.352667344551868 13.149402411060864 13.150179606953957 12.910860545752836 12.946497333489734 12.73795908614425 12.684751931508721 12.560173744013364 12.566557348091496 10.455501346506667 10.42412248781152 9.74947444705742 9.63654395778211 9.521812714065447 9.536336063575991 9.740412994691981 10.318331358657518 10.347630052138435 10.46417287594544 10.714457023352127 10.648340510572456 10.775916222153514 10.908017174592128 11.072273675199945 11.114311525598195 13.152701121698698 13.237938960929137 13.305842667242407 13.415937140328952 13.63198904071836 13.816934721098459 13.68376782274096 13.903375452179917 12.047645715438554 12.066193773331067 12.171237897024646 12.176877657297469 12.423421056324758 12.57784259941071 12.629487805257618 12.648714166152791 12.897379179813198 12.853090965387628 13.08070295676967 13.127965183988948 13.186835128577895
13.005989363292878 12.958936596897 12.926625873170272 12.798857210090773 12.712033997406962 12.5835272914105 12.511394348810496 12.446190412205553 12.300081762580785 12.179826218379786 12.130885232273549 12.062183375891493 11.944418017501052 11.733273155961294 11.672952229197481 11.51648925158627 11.519750012010627 11.471995542668333 11.224191440782253 13.158735963626931 13.1634135249745 13.05287200797828 12.841818302268633 12.74744516540283 12.743408381175199 12.508452921180735 12.578354650124812 10.466875232367943 10.449757351165958 9.813300475698735 9.730655118371756 9.785554639122418 9.738195168701477 9.732012270294279 10.3119250218684 10.51862685485482 10.555056797268108 10.56532785326815 10.65502689694597 10.83629313397647 10.999041279701604 11.065918806483719 11.166717065427985 13.216213587012835 13.390947100787894 13.326942969027158 13.465526872892385 13.6030906764771 13.751116005659465 13.829468769851816 13.87509585005513 11.996778273000723 12.113226393436632 12.252102674936292 12.282745154803084 12.448900663733522 12.460740475220481 12.607760019205156 12.669600992407407 12.883009849691396 12.881122232225954 13.077098347542693 13.080636279487397 13.138651192143016
13.104407003487927 12.945985528817468 12.912809241690857 12.861505889506285 12.78252380114249 12.633400734971447 12.534213288104914 12.429400266135229 12.29888175553331 12.228859495539737 12.158174810096654 11.986374394034078 11.940785638351846 11.820042928988343 11.79877393786022 11.561188762112595 11.595213692974253 11.355180434407773 11.373150721811687 13.278629007812269 13.178500342164163 13.012358381243644 12.91298493988466 12.854406496075166 12.75195605779016 12.689680989337655 12.573233589259818 10.418350832447398 10.43338852859129 9.928609682227883 9.734046858419632 9.82780012115649 9.772649826448054 9.856966559168008 10.396771867717442 10.468508501876995 10.54884595538434 10.699006150501381 10.765936667287253 10.892834269138662 11.017802108476484 11.038507062971613 11.093797631903886 13.232974366732108 13.334447441594659 13.43749598538348 13.492200311368132 13.750665438349197 13.916072726377108 13.790780091313275 13.97141588392593 11.998495328609842 12.152392019386642 12.25988031308899 12.317399728254411 12.435022785699 12.50770489182755 12.553087002117806 12.735491734351893 12.790934075174102 12.957131419036687 12.952904305140589 13.097840169796255 13.23378492026332
13.088914128967762 13.006988015456649 12.933991625463069 12.823549499175403 12.713013784668073 12.644172261859445 12.600102632895496 12.423270309552272 12.35119070353536 12.222012494144726 12.131605186617804 12.15935645562184 11.877048452412033 11.870827630658171 11.684078710102165 11.614310807331794 11.6137562890959 11.44798749938131 11.335969349095244 13.165793279878873 13.116799510844745 13.021955089118467 12.980167547733696 12.885169066367137 12.763105517889743 12.675068188560909 12.54861249432215 10.538563239559728 10.499838478289298 10.015463499500637 9.916329164772705 9.850015667682833 9.906926423710491 9.921820367494373 10.472894956775322 10.622877584892107 10.680763869298366 10.806050941537135 10.836483464421299 10.900980359033333 11.00291046103335 11.026175284486943 11.1846165333044 13.233297360541739 13.317438759785894 13.411131101005623 13.500477531627652 13.69442493614111 13.764168947435987 13.820140711513218 13.862501720566607 11.988362480508062 12.122695624011756 12.156494897242215 12.39171963376234 12.49394615045963 12.565844958124039 12.550321541180738 12.748424798147383 12.811388059744575 12.894121703081666 13.007986267976424 13.172907137394214 13.274491720796984
13.119357084009492 13.039460595199163 12.966999805253419 12.799618204055433 12.707377166785557 12.649003980523439 12.638909067044532 12.349327866691903 12.376474467531503 12.28886579633621 12.205779218369088 12.11852982047822 11.961713032971906 11.956940061201305 11.81429879092971 11.704124940594681 11.640337529246207 11.498108742524646 11.402911606411752 13.268696501253139 13.179547662790712 13.069854567346173 13.024759026339863 12.895186959639009 12.806898713233949 12.731726420344991 12.745985986387822 10.61760378128897 10.5717854973023 10.085438823871074 10.018935240505805 9.998706022947697 10.055668960657826 10.07434591903232 10.583805301707175 10.690780147784777 10.704054932177023 10.728627533600315 10.930084820568972 10.987362042897852 11.048406792194097 11.128336196149897 11.198256172669197 13.317398027197616 13.388112806453497 13.522607488824825 13.601664075966717 13.636488249529156 13.731989800233702 13.860887888936187 13.952245582996076 12.014076519366814 12.211581008860149 12.329313912386333 12.35784299721309 12.49428416062623 12.518872351052476 12.669050867806744 12.776460977254164 12.813167447746167 12.963127558386766 13.088350573600847 13.17116525033161 13.178490307470438
13.145750542471669 13.130602172083353 13.025435185375414 12.919322832894414 12.82116306965294 12.720573895920202 12.673436767623242 12.430514796625891 12.404860116929425 12.322800825249624 12.148444611690108 12.093703924688592 11.889214373188196 11.841604590076905 11.786424265097839 11.612740130125864 11.587349903976403 11.458107734850708 11.547907264102687 13.378653670821967 13.13963538364878 13.105914182708814 13.040740447252405 13.049238137419634 12.94753304202711 12.868508387132396 12.812795130487926 10.780257895368221 10.654752737291027 10.182937069195967 10.011981880811268 10.127986469327334 10.024215371276934 10.122466776314308 10.61562643454817 10.588184536375374 10.785677073805461 10.84566998793181 10.928209363805108 10.96932048531709 11.108934733129525 11.059227088311639 11.18307887330167 13.345406588174532 13.417439255915008 13.558434302284441 13.623094876417776 13.667289985977487 13.856551466732935 13.892331833176527 13.958891943466893 12.116301003392184 12.213467528777873 12.197037128336191 12.382901865819928 12.507202143848405 12.611122834874028 12.674979403419224 12.748648234712965 12.840160053950768 12.953502813177183 13.099628978077765 13.204748741722506 13.361763360511128
13.17313355810977 13.016942856682938 12.982702438440217 12.884680525285443 12.695609632374676 12.706853264253311 12.562681672766516 12.518342080218329 12.372482294780076 12.288733925835666 12.200147693867775 12.070249948230778 11.957549934596559 11.990244633338154 11.845515248286922 11.802436736602592 11.714336806317789 11.50715481086585 11.456166161596503 13.393135971863765 13.294096720591329 13.238448297988437 13.164105716637494 13.096909943288065 12.928229932041734 12.846100490355376 12.923365468639657 10.785000612831862 10.803911609322835 10.228147150015028 10.167731584888163 10.133673827403904 10.178641584696612 10.220584082319542 10.866043868996092 10.807399601272774 10.992087302459277 10.962346911605858 10.986311754892961 11.148992536341854 11.18600986683796 11.191632148627873 11.231819542665939 13.410207844517807 13.460333048373702 13.540508167184125 13.717575104610617 13.736678475452477 13.857332003163002 14.000009993876551 14.063770034580974 12.095164804674935 12.23600596645767 12.313342739326272 12.363429378450986 12.487520370667177 12.538685325799419 12.753632092504143 12.822702993558801 12.840582157263777 12.982685820550694 13.057212570423573 13.214510598648149 13.320242727574191
13.308457322703811 13.114258273267632 12.980563160086483 12.93657055267683 12.83199703872772 12.766541492545091 12.605611955180049 12.504443423275852 12.413712188931832 12.2922405565655 12.141170311449969 12.187515899692338 12.07067732377374 11.967623130581643 11.895589728137399 11.696347429020514 11.764702790551738 11.62390753989584 11.48357551424753 11.432361913701406 11.381888928823551 11.242030828538885 11.161937718244168 11.13786569086579 11.079266347140237 11.053884130154033 10.919262150334504 10.833423283645772 10.856945940715145 10.308249071769982 10.341471611481674 10.391924796540238 10.261080242850001 10.376589673262892 10.813660086026717 10.888742640709241 10.93780709895764 10.983380301610273 11.130673021380382 11.12917150072829 11.255643773089016 11.313825185783903 11.37057174364963 11.466550423447648 11.48604097691574 11.590259067089626 11.665319357220946 11.692765396499716 11.841799564491536 12.045668165642018 12.041149738803803 12.221875893731903 12.184271905474116 12.390600670588945 12.512047223112834 12.569196289722596 12.606620317591794 12.736269628127264 12.783893415587668 12.910854003557192 13.06355012678165 13.070531498611453 13.259712659953832 13.32984529524042
13.366024554586113 13.065456371268588 13.052299820907516 12.948787836909759 12.788922619147407 12.720081260440821 12.603528704074195 12.485333548858897 12.481757621127286 12.380052528996407 12.357644497527332 12.217653151524418 12.131894616743958 12.012090447324542 11.970009103689094 11.731052463065625 11.753921124122384 11.584637042785925 11.56819051553301 11.540197279792546 11.408065067566248 11.327853073910159 11.22228556159322 11.214810823343292 11.21368913130049 11.000314368518158 11.009553581906111 10.920943966646716 10.912755021649781 10.405630669875558 10.457164795559567 10.429863099390339 10.414902372020036 10.472158733005802 10.980175526954529 10.97565651593823 11.040650492795969 11.101309917165008 11.202843029120054 11.26401678528277 11.289131913816844 11.3784652103615 11.457867555358668 11.426895819464997 11.596957314726618 11.705874406020776 11.694485500785985 11.813497184288602 11.918930470980792 12.001790628632767 12.058024841635126 12.1981379457823 12.247572943379627 12.317449451055719 12.499601860466159 12.56842459323034 12.595289663740413 12.75287640093507 12.829987483668525 12.891017932686024 12.99694506723362 13.127035840161247 13.218424463784308 13.238279174007273
13.264844260989245 13.120475886342794 13.005617422358839 12.912653110500445 12.875017749580872 12.806380738392225 12.62894226566153 12.566341268494776 12.510279319592671 12.434862777393315 12.431484399168097 12.211007706530301 12.150000257699345 12.077789908232875 11.910371943827055 11.937066714983855 11.729442890123972 11.735212838924697 11.703230330863075 11.587822731512471 11.49224148367721 11.480906995369534 11.396072098150663 11.337085677493052 11.256742059393371 11.092720389465212 11.148731231291372 11.08083785798898 11.011141943839133 10.466765179697513 10.50953536746842 10.462365949026093 10.571667832487115 10.512611884979925 11.073359807486984 11.042677633531152 11.175704068634543 11.27494173799928 11.201269892867913 11.330450611925407 11.297291087725414 11.471190514716904 11.548015541952731 11.613975777324654 11.686178657491784 11.70499364430357 11.795074041873397 11.889968937188526 12.01624414808081 12.046276603007907 12.110653510969811 12.262215622497273 12.426620774505407 12.393267503721688 12.57953155932834 12.59450025897302 12.72389775184584 12.860871502087864 12.818382824826333 13.012901605269358 13.095453124095892 13.159066624696315 13.264953854953712 13.332936921771548
13.29776303092806 13.137639408141919 13.148404759449917 13.004292924108844 12.842758649568871 12.805439430607835 12.698390052427635 12.679768742428848 12.646917852404272 12.4909370071569 12.377605218054637 12.369097423203176 12.183800651685274 12.112827053053321 12.07311952773079 11.966756530453 11.928103869286256 11.719092444242357 11.715098766598638 11.55411937328673 11.429748226787602 11.46157744175493 11.381453030930071 11.407679103999117 11.19881848338987 11.29965026033204 11.236583159518352 11.102022738393101 11.17618269527074 10.627668247423879 10.524901625570584 10.617086572615852 10.545940796408344 10.639144710713172 11.123041962747532 11.114804074496188 11.255032432528077 11.245976327910107 11.217961716451653 11.363494047093765 11.405559413367335 11.47083911959395 11.543371923300054 11.692791324193335 11.669826301562475 11.706074258215171 11.979456805740949 11.944862195960829 12.00836690688848 11.981808337428946 12.270781508307552 12.363350294474387 12.445221657512997 12.330739650937202 12.55777319002505 12.62174470371067 12.759592468677447 12.781941277158328 12.897695612460007 13.083091343084646 13.18481524519531 13.184898626013357 13.343607576504157 13.412772176242278
13.365605380902764 13.300463062683292 13.13845503464602 13.102637919090132 12.90367911678316 12.957589621621372 12.636469399957962 14.627723527597004 14.602499210184664 14.420339216368268 14.380544897392795 14.327715290003022 14.233590256792894 14.09145712024537 14.011484970337056 12.01308922880531 11.91803126737741 11.908217821312535 11.815884765922512 11.680948669032885 11.675862598827022 11.6087013819516 11.483877604320076 11.504290509406578 11.400988002277488 11.396800633737012 11.296330682308055 11.158822766000123 11.208547873189813 10.7138498322807 10.610523512738142 12.738896754187396 12.659739061921169 12.724713935815245 13.224343479162837 13.279427261115966 13.302307345268744 13.335134260351717 13.340851866811034 11.435298904387961 11.469914198463577 11.602925286860991 11.678932523641604 11.748807307029097 11.734195497945906 11.8584887383021 11.913458764300822 12.068776089841293 12.030335544220572 12.154231343169187 12.201373032009414 12.265783100252927 12.48762705507086 12.483673107770972 12.586255901016205 12.748866102780127 12.761633182916263 12.88702007601631 12.871175062257867 12.984345157096673 13.124776077569024 13.177263581826072 13.288525543546964 13.486377493965797
13.22290229819694 13.208907517747047 13.195241835386815 13.0489266786078 12.96287073840459 12.881263513822946 12.766079858362211 14.774268052725732 14.647640755776541 14.599058544580828 14.46417838600784 14.402032785114672 14.339393806200736 14.198483888516497 14.129667429624233 12.091488066519467 11.94077863825652 12.04930476696479 11.812727815504925 11.73496731509449 11.661367544550675 11.542422599822704 11.638116582159972 11.502842710967176 11.376502026868655 11.451753236545098 11.434455828518276 11.43691724884814 11.379544603251748 10.896567589872634 10.764627717364476 12.734498642834243 12.791403814042306 12.812115399753877 13.32651378788723 13.37879205733354 13.41935973396312 13.486670135101187 13.433693170542218 11.54615850196256 11.66223646718166 11.71809505833339 11.705452786367667 11.75934819854253 11.79552063298377 11.91685114430451 11.91348329223856 12.13500899685727 12.195163039508362 12.146982380025634 12.34514623799466 12.408926829711557 12.448853521919679 12.587437631673291 12.697159159162567 12.67671529750557 12.783746133831503 12.925567455978396 12.956044379487574 13.00855182801442 13.217917978642593 13.337189617747196 13.331862479975728 13.354944587848378
13.349812541799707 13.294852101850836 13.26892132701279 13.036688595388046 13.027034243226412 12.95912486587724 12.860931043103756 14.71343852755173 14.66657848724134 14.638063474110226 14.600650407226167 14.458739635596688 14.421903351955436 14.282806906791706 14.23813731435908 12.011014380896977 12.00441070621895 12.077659199713572 11.931954275523799 11.93648318845655 11.777147020880758 11.678182486261377 11.620401136626182 11.596126564157297 11.594347472368955 11.54603312909167 11.515545078787541 11.504934269953909 11.416021647530648 10.895246956594304 10.82285346758834 12.916885077150404 12.978468493235827 12.90030380141866 13.424116113420062 13.493232487241785 13.560866377281771 13.460862633146691 13.516334378150452 11.662082985584304 11.722241076043995 11.732634110729304 11.794798832769384 11.8446454364689 11.866621082152044 12.05256770857916 12.055868923121817 12.076617245014589 12.195022524332309 12.30625686150957 12.271915316290306 12.480055022894792 12.479798026803122 12.607344433622693 12.624703084274019 12.684901680752828 12.903253459853234 13.02426268698687 12.884409955148959 13.285000700890702 13.190214092959003 13.27837885168933 13.33457956717304 13.45579467834034
13.37912887964917 13.331247637769135 13.297252488317284 13.147036704413656 13.202288770626213 13.039813529300499 12.93129027359876 14.821148151674965 14.757519185568178 14.713142363620573 14.592677024546473 14.519998085896413 14.368016516959381 14.345010182949107 14.245856275453587 12.261699671227813 12.107187022375218 12.066336995800041 11.936142666738258 11.962963844627597 11.897834196123355 11.81515628128407 11.780327175230688 11.703656118382247 11.709366964013611 11.621691897711319 11.608580862259013 11.6121348959243 11.44094964864087 11.07196124456808 10.988683894626075 12.987016192353222 12.991288486031916 13.060875894519214 13.556210170468853 13.588730220151835 13.560839428602609 13.668618983774625 13.649772505294543 11.658221245895751 11.690833465474874 11.753651391596312 11.949049601718855 11.907402596592576 11.930217417243673 12.014637216114119 12.112656474564872 12.261657851183598 12.309490757765097 12.385295515327915 12.407222969463247 12.437500351692313 12.527799808016777 12.651725471585472 12.804315907327187 12.808990040362385 12.940904656545692 13.088145563772224 13.081145869949786 13.22139312848053 13.243749022511926 13.400420971161505 13.516432120952475 13.54081170017794
13.535452604724256 13.334510516419893 13.305212739265423 13.275741154437066 13.110415799392655 12.99220358510557 13.084438331206446 14.846110002627688 14.774737040479135 14.70187841111062 14.580265709650345 14.476016382636557 14.489463574310886 14.398412260784651 14.25456924368309 12.278862192596321 12.24186907127508 12.158230685188714 12.145882383238373 11.969217208905754 11.984780468753355 11.901720544282389 11.879925857858174 11.736492990186077 11.814321489147288 11.648338548326599 11.697476082731217 11.624000960409012 11.647384593631527 11.121340784463513 11.157849681025864 13.120255596229239 13.019461554502994 13.18753245859204 13.612940806003055 13.63963411901434 13.662783711670698 13.75567181225298 13.755002592920327 11.810632824037333 11.86327469667699 11.929653550246652 12.009669624064546 11.972555521328603 12.077365457208636 12.066866002255788 12.157414318668408 12.246673792829302 12.398811776326367 12.41477172371072 12.556575277300603 12.591094101330622 12.514853337384324 12.721648218111612 12.828479927165313 12.945606514711937 12.996614531522466 12.976950749348537 13.195339955420343 13.209217713382788 13.33448674058546 13.376391348283791 13.53423868135075 13.588706070363276
13.62004162035032 13.433589438276144 13.468141362362841 13.305649973669983 13.114073423805051 13.118480880971946 12.996924641182193 14.846843385694369 14.83410707848983 14.801276353930353 14.69742575646835 14.643760983308699 14.555157649962405 14.525086054358372 14.3847831342798 12.383373177853732 12.255443394485246 12.26465046509836 12.19360967604432 12.161905227518549 12.035333691901544 12.03307042199343 11.905638822505638 11.910103450453756 11.838275505987289 11.78983024267845 11.800934489014189 11.816481831926993 11.80951434528172 11.260589676047715 11.215770403971101 13.201674257964273 13.190477525124304 13.310952984365585 13.773359778423037 13.773325300362577 13.740127791556644 13.829413121712882 13.770738908594515 11.846175357993943 11.881075822048693 11.90621546804353 12.020786804857545 12.018536762928028 12.132302776311041 12.272644928302494 12.185947546361481 12.322319402732688 12.457468111059981 12.451088218037528 12.408059180592813 12.656336913378777 12.769278725994893 12.690990236663179 12.862326595564024 12.889406306148485 13.067298149536864 12.96865722641577 13.180491552032963 13.29803757726909 13.338426594272295 13.326127159207985 13.566484047943218 13.688002896090037
13.534226721625986 13.516731765028444 13.440904272111387 13.325286243091774 13.278765305962752 13.117477212537242 13.152240437859255 15.036466990620909 14.925945963695309 14.82528257176237 14.747350475588734 14.718690253053914 14.617747305102954 14.579316024240514 14.4985029106079 12.348777918980689 12.406384621773167 12.267750826305507 12.198689367552701 12.191337291956382 12.171119211101885 12.061493429356723 11.93793572057671 11.956614584528904 11.877068000053383 11.886187193260696 11.770607304967573 11.870067527171344 11.897679489249045 11.347950600459061 11.30359095511411 13.252511195842306 13.302409332870276 13.320037447135155 13.79791687899024 13.81430004723781 13.846884029113209 13.944721641538775 13.93156247589849 11.970183692802197 11.94727023011304 12.066709009480403 12.148354714638337 12.13299913896443 12.267932136303035 12.30207852962579 12.359167845452271 12.454412010954531 12.411154412126677 12.476777243408922 12.66456389204878 12.701586744524962 12.7365034552292 12.758214310106656 12.869343009202895 12.977250569669687 13.029494098531014 13.050177182158398 13.251261104323014 13.34871967119353 13.417288373377902 13.414646362383987 13.657580032397142 13.70443700077691
13.604372389095873 13.496741124269409 13.459340873448824 13.396829654673372 13.358832753994044 13.303141281609111 13.047887986152103 15.016069305151067 14.946985220895128 14.91291939311813 14.863879774833551 14.848976615068228 14.601883093104522 14.552859159177164 14.54698607115325 12.41961344805185 12.432207919287697 12.395420787131892 12.330810147772045 12.154113045045078 12.221511735651967 12.115572979604128 12.142244137478082 12.109022996803782 12.00802439268258 12.036212915012893 11.94241085188569 11.944085908992793 11.941892946953804 11.321554738479202 11.357661887014467 13.404687970026727 13.54074632422866 13.536390182131475 14.01957929867232 13.911801984906646 14.023310903462427 13.911635764143956 14.0256628216307 12.048982519332116 12.044294141570122 12.09157917178425 12.236100962577433 12.139546716305908 12.312244236336904 12.407206677037497 12.357256915897967 12.566521260962777 12.590019858010642 12.516332005744971 12.742042461898171 12.743624439243689 12.849225846686647 12.909583757883714 12.920930885320955 12.967700313332509 13.10331759178665 13.25774650275285 13.42742165535415 13.50060576913695 13.51593852751766 13.498868622903222 13.641938819157362 13.593053809313199
13.592827217260655 13.66819485133595 13.518720591520612 13.475332638125447 13.373789964123429 13.321054679337522 13.101282423825168 13.180623426216261 13.045017234823423 12.867481322034077 12.891040536133687 12.76226159597546 12.716087101867213 12.716619810161903 12.671825830717408 12.454582166627588 12.454850411709776 12.529149633899705 12.315703463757647 12.368138655945996 12.223380620299888 12.259189128089282 12.306479471679657 12.116272484637685 12.084525107535105 12.152121138000425 12.010114065954449 12.02147949954411 12.034109228827898 11.454551689203305 11.513060440901109 11.470581802542398 11.532681683138254 11.552128339172036 11.967790689316127 11.950422378264424 12.107290604248758 12.092135216182728 12.164942308485974 12.134876796539475 12.185515883114366 12.198365012733476 12.329841894973544 12.374814504002968 12.31678301075739 12.466457383049626 12.468642822887329 12.51926936637297 12.636119489388248 12.669693408590387 12.734306540846081 12.80972662580783 12.902713533443698 12.904455118621811 13.037846341391853 13.109154549904765 13.144293213510986 13.396983471349959 13.301665169691251 13.466097345183897 13.544189186829946 13.625456801850586 13.712507304773503 13.7651503276225
13.67951723937685 13.642098571779393 13.569497511452473 13.532195593475834 13.323941325726446 13.256674016917916 13.227408517482926 13.234508100135635 13.112043056674965 13.054340106729066 13.059028417512192 12.862415713753386 12.798948433371839 12.783700279104607 12.706103764991905 12.684487197514246 12.652660530491708 12.596773340128864 12.51669954195676 12.394632934664674 12.386870003094002 12.31616319526769 12.178129671802704 12.167108037157174 12.208332640399572 12.221206126104278 12.139093690902211 12.040665531346686 12.107995632138111 11.61293216987177 11.597223382855738 11.480823117997883 11.543240091208647 11.50859500514931 12.191175371949015 12.102637538807944 11.963072354839797 12.119256012847904 12.251953135070263 12.216010944766323 12.190290181744622 12.387134466528034 12.368948662951523 12.448039583442464 12.469341603291946 12.562127999092983 12.619325157444202 12.644740071728412 12.665709179730934 12.756386166740223 12.834644146098313 12.905723486305064 13.108061842824139 13.015271318041838 13.07902079948473 13.211979130555214 13.317380726086615 13.363501446533585 13.427387648005926 13.486155772456637 13.58161673176919 13.698791285463106 13.761428114145332 13.837918735792583
13.825857212472027 13.71860762997239 13.564982057116715 13.643974637393526 13.461598621023834 13.22897078349296 13.375948535120697 13.2522798339445 13.115235582517924 13.060812851564036 13.062138162092719 12.934116632323654 12.859382704459922 12.881853186682592 12.766529225952308 12.63131139887637 12.714537489649631 12.550996506886507 12.559680421684039 12.483167510203081 12.516741460198412 12.409009560003124 12.412714878708934 12.273070099981242 12.23977493856468 12.277638541932228 12.360743991781147 12.197901088684477 12.225294585288541 11.722286000532508 11.741474625860109 11.669833686016563 11.784471435223594 11.744447794884577 12.250751325054463 12.245686149854171 12.279367492031158 12.29259247561281 12.265981691943873 12.282038902732108 12.336893740786703 12.434161547563932 12.532963266277998 12.513337744844891 12.527316669725957 12.62716195447192 12.74485625437251 12.681748626486414 12.703329213246167 12.763083871212148 12.911408584383999 12.961034610137148 12.981317784980778 13.203859597906662 13.252195775726653 13.273383515250472 13.287629573851165 13.413565684119023 13.517505557828907 13.530067807116561 13.67564613549405 13.674573538785081 13.75632006291892 13.904015297194547
13.826424901419685 13.825445580354573 13.738963829861143 13.622576953969707 13.464834847627126 13.514050983259402 13.416861974238792 13.25912360612622 13.141397606818996 13.170127412676203 13.082520945185415 13.131112496742702 13.014670049733448 12.87246738740513 12.749959286763698 12.83242823187701 12.633262550160483 12.724952234458396 12.602746049036801 12.594633087764375 12.559044104640385 12.476856812453315 12.549798801084592 12.50498527433303 12.360045470700324 12.37067367984977 12.28027477416308 12.295038478826944 12.264170463468252 11.806331364255485 11.738142481845008 11.778669995634495 11.894597963083939 11.74753277393066 12.303222116372952 12.35203825290314 12.367953623923082 12.424206137078368 12.48526894186431 12.313596543222513 12.501705474283938 12.591913127262346 12.531519339753759 12.577025170763335 12.669003143917756 12.683521429218372 12.769989671363522 12.920584259384038 12.768693610963059 12.92407135464691 13.079295846021736 12.9663557920822 13.141148189488813 13.095220761033115 13.24348940183097 13.286633910173542 13.292132280074398 13.566344265904618 13.585908043891893 13.761353643498573 13.717712172385223 13.829576750137123 13.84662346993923 13.924489245978172
13.888683342811664 13.778201769204747 13.783744775387067 13.715514642490005 13.587584656301956 13.44961831993674 13.537258701477995 13.480776932229434 13.302697263127197 13.245568192429694 13.140968285917536 13.180996331100262 13.13458118309025 13.040052641216338 13.002491698531708 12.887540990929606 12.79309558553912 12.792253159531501 12.690966516176124 12.692082873962818 12.62489247851713 12.553423969085687 12.579043120123183 12.563865039955864 12.483604099201857 12.517520689713187 12.482359963971414 12.432014126930671 12.41795867609722 11.922384756315768 11.901305677410072 11.948330203748482 11.882505035942856 11.93035305831629 12.390176210294326 12.460281265195732 12.399855445112289 12.462664955477155 12.52596453974432 12.628850057438925 12.554609752480486 12.565199638544946 12.736489505058442 12.688443133136667 12.735707902873294 12.786214267687932 12.870243674367478 12.832252852446322 12.844159838585528 13.022039159360434 13.031933860249161 13.099758679016917 13.116882274119563 13.277556954523815 13.17653417413914 13.338212266498312 13.393589721359286 13.62609398473667 13.630766575199734 13.673242863459429 13.790507601448303 13.821483890445087 13.917731808057054 14.045384548835765
13.96737303561866 13.974307698544893 13.838397147819784 13.768661749953273 13.684599638281686 13.583068694233509 13.54537643228129 13.472761781500045 13.439190521981505 13.302962243220808 13.288997822555093 13.157473771343733 13.122451514452521 13.116432799092443 13.071579374537398 12.901508456568429 12.943351399989883 12.968588634379255 12.82745878004463 12.725074930092472 12.643142798679566 12.66893433242168 12.665018673014483 12.635287596051965 12.586498765800744 12.673677825512213 12.594890031268688 12.53192903350913 12.544852884699232 12.066507663069354 12.000407319828668 11.974408163892956 11.91772816157468 11.939898037825925 12.533031298793864 12.415606956832036 12.485562763331403 12.584287373170222 12.491896786714154 12.636725514653548 12.70401662447202 12.735591377964482 12.798116827488197 12.819730263408442 12.806330349981316 12.881381029897808 12.928260145808212 12.972365157382066 13.003285340265762 13.084141871518497 13.167500159439987 13.220626916637691 13.216956849680999 13.415167407524814 13.384498859801576 13.446379067242535 13.53235544522884 13.621969541060675 13.627928282873711 13.796452345358988 13.828078311528733 13.873975207454858 14.042298638515238 14.093897376157814
14.080204681155166 13.948287439776475 13.886451957283228 13.805513212693292 13.682703054357763 13.692981670138181 13.63478071425756 13.541423022814003 13.438480849005698 13.286076361366165 13.389724346572374 13.317936102522982 13.234969246404955 13.10851277091586 13.114448639312435 13.069622151445706 12.902787464834342 12.987037925632338 12.988087653407632 12.901086422437366 12.927954565566777 12.7607013786726 12.683132192817595 12.707284129205211 12.710886100488013 12.659401940090271 12.629760640587847 12.619046688701596 12.505866904570237 12.191364038580035 12.13178075544121 12.096225704607473 12.163855496674344 12.139862798308632 12.665934800593165 12.71870046753165 12.624599376884486 12.675723158051905 12.66319941220043 12.761958094434334 12.790966479358731 12.702667864698906 12.776001630005954 12.793521842189428 13.0072485118355 12.95333123058156 12.988281314826446 13.069549496230069 13.099464181398188 13.182453641747589 13.244602150062518 13.284099526357558 13.277904364057239 13.398557520695029 13.534673980328428 13.566473831294394 13.624532293612354 13.75896084393162 13.72713658854024 13.749193244505431 13.99108048681753 13.901805775474157 13.994112300620976 14.069282269279887
14.01906794696961 14.04366572801201 14.007216110285226 13.870758270260252 13.818509760499245 13.780100308531628 13.699825584584527 13.634557918520581 13.481665998721684 13.448650938125091 13.446127168186111 13.45633304371088 13.233235567614313 13.16555790524912 13.187590700736223 13.121316255080714 13.07159513777736 13.07994985181474 13.030606550173173 12.954499119967169 12.94507837935527 12.871828298973927 12.83213715441959 12.763772495923275 12.819658929250481 12.755710839626612 12.778311087864191 12.784562043536537 12.723595859612951 12.15867034572791 12.194590582522498 12.199871155745747 12.288010623024878 12.24886785194746 12.756716442781473 12.674381345055123 12.712505993996242 12.71966876181396 12.776981141949168 12.809143545177092 12.843582360985344 12.88152897521122 12.908517857093338 12.961606989649994 12.956931814338166 12.9995273111983 13.10759051807899 13.187168938809467 13.248285260779262 13.172422051947914 13.358810516122535 13.406002918735973 13.371823752549995 13.510505674671776 13.584091920769476 13.598938997879205 13.688383837233788 13.73180354089996 13.821873505483408 13.933868226825043 13.899830739107783 14.116679408694964 14.2030020097101 14.150500092635841
14.19045468251712 14.12175085106108 13.962137823631757 13.976672893554234 13.888408054511707 13.694513502502584 13.69526156622873 13.67725676006106 13.659774515756705 13.630073093892225 13.480026229031509 13.451950958542591 13.392687413463829 13.28592018620984 13.218568386068869 13.21916290231743 13.193788094189568 13.104966546953188 13.108105621559858 12.978129219085787 12.935369898590036 12.939225641664132 12.963355313785234 12.897626056341272 12.798586605800603 12.934913748304508 12.870994978631845 12.917417076988121 12.906402014930979 12.346658289998656 12.34397296001926 12.34266176840453 12.249092848816424 12.322008016384299 12.777501569271516 12.895828545472389 12.82415130664949 12.88587253568239 12.921013188971783 12.922773532475547 13.071896172415153 12.988129030419335 12.965636463676233 12.994416911252381 13.060705090834842 13.078387746808204 13.180745497950442 13.235986049742298 13.276053947500474 13.269428774347087 13.366530078393682 13.487428954255243 13.493700134848378 13.649549997937925 13.62265018531045 13.64427579103688 13.717594019013164 13.722066841928154 13.846660729874582 13.912190302950535 14.008021277891249 14.135905957707655 14.184688882867416 14.283853581955535
14.308689282354726 14.170958638785834 14.104446021358577 14.065148093437914 13.881085290473616 13.914237040867418 13.856720825062407 13.82041641044128 13.692442622622025 13.626780741085177 13.577678462937483 13.540992875315922 13.43622996053212 13.492417976997952 13.358169524022186 13.321104484054683 13.305074154323648 13.275389854465393 13.189040288863465 13.2032810526168 13.093527584677718 13.067525975212419 13.076738286830333 12.988088476090034 12.962653718944754 12.96852628200276 12.943416306759202 12.924777705699823 12.877636123035936 12.399427022208673 12.417918683274879 12.373183125905374 12.403884808189549 12.391394070966985 12.917411653020613 12.946527310874574 13.038698316980678 12.931705965019427 13.048372623036926 12.927391966097298 13.044715829397141 13.06590799731622 13.032398852005306 13.195197055939136 13.21019969376893 13.209116110572905 13.192877446404943 13.313428643798483 13.355709613262421 13.391575000826784 13.526216249737816 13.493394504407627 13.607493163508202 13.646773918620386 13.729412715831257 13.782481151038164 13.853337777668276 13.883029197130568 13.969603411181513 14.054816459665512 14.10365884745902 14.218759862981797 14.220867082496744 14.29986119047038
14.341118896962126 14.222469142324327 14.190404871507747 14.071139588192995 14.055978817905599 13.93862575263957 13.899509807576425 13.800829432056998 13.756434135868986 13.784612115420975 13.654645664928573 13.619692257944992 13.551279361098013 13.522721167722006 13.4187339665587 13.402214788968598 13.424067534546818 13.251348117665108 13.355031953899463 13.326921224147174 13.198568215268871 13.18669178109126 13.131705732516481 13.07708800857819 13.13875495292458 13.137870850185532 13.006573048420154 13.022488820467201 13.081089188915794 12.563946026039623 12.496918363960825 12.539322736186035 12.557167109512175 12.548906671187758 12.945882844899296 13.093167798011697 13.031313408907325 13.00488304886611 13.182900203963449 13.080379015141256 13.1733695260257 13.1191084276356 13.230758157833204 13.179823311600853 13.350825205165181 13.277458291461702 13.332293572498463 13.432636680371829 13.497517254494237 13.404381529582368 13.419714364028728 13.582153885285761 13.622882364531343 13.764713973442468 13.719535642063095 13.83145636563777 13.902445713034142 14.043517370288537 14.058508097120033 14.155067679050463 14.03287898356839 14.219223921460166 14.288502284570594 14.3685246447818
14.357046998040717 14.27242339207517 14.25205467888736 14.12368505274016 14.076487244171467 14.092195698222167 14.058194831256243 13.934771033737993 13.863264158850376 13.870152917803862 13.751277043458405 13.734789506994316 13.694947928567457 13.601822297690493 13.505532296809784 13.44951627532285 13.4208955600039 13.428646342128115 13.297755352310805 13.355790136040126 13.32138297499335 13.276577668429509 13.191358599350506 13.135889973358656 13.159441932126988 13.090893398748827 13.03741566866027 13.173903801856603 13.113699640494735 12.667707857480359 12.556337955323961 12.571069066928652 12.554010046057877 12.678035256733041 13.106145984960522 13.141709046800038 13.056739770430719 13.092475965958066 13.143223508116188 13.196225505275256 13.265171580917139 13.269443767384187 13.259032220099519 13.30327741551633 13.466245178634033 13.37313873383632 13.390027369953641 13.5542733590377 13.528351208615614 13.533967634183211 13.641276689612255 13.720667164887022 13.79052714299759 13.821604542379394 13.870892538232559 13.954668441617356 13.942189366404174 14.02645547636886 14.017733394996775 14.163004705307896 14.253386514487806 14.396011411337033 14.308281610043846 14.36960171677314
14.422980037358899 14.457316561029756 14.239673190451684 14.263043670287283 14.225699424934456 14.1488246842109 14.087951352683747 13.982549895449672 14.064190204610112 13.945051312058247 13.878432362502672 13.800623967995238 13.726307826884263 13.630296244613 13.66847017673472 13.590464384314362 13.50743194337881 13.494261257897602 13.47742706460266 13.394763347634187 13.338568164684826 13.286560723308416 13.26945972343107 13.316404411508792 13.302661877569443 13.203187587974341 13.178888167308909 13.212364262316097 13.164047166155127 12.692678643134276 12.735755369551248 12.787636079790131 12.729650736254682 12.719073859365233 13.120393410734819 13.285115399473796 13.230631222502968 13.280062565035086 13.269002416044513 13.317533397977511 13.336961279258045 13.363135767104119 13.296376096634756 13.351207482224641 13.470852612323599 13.488577532058917 13.446034059604948 13.603760536652965 13.623508508127426 13.705732268335035 13.645776345713239 13.795745205846346 13.936597259046476 13.954567318246747 13.950454956054308 13.920628271484414 14.065412499707817 14.088159115752621 14.216719968566062 14.278795432743708 14.237568090787898 14.461610805334569 14.507162524973271 14.498828677486141
